x,y,z
1.10037,-0.246329,-0.20786
1.08513,-0.246811,-0.205173
1.05076,-0.242647,-0.198906
1.05947,-0.248618,-0.200697
1.05859,-0.252315,-0.200697
1.06725,-0.25838,-0.202487
1.07112,-0.263307,-0.203383
1.07496,-0.268263,-0.204278
1.07781,-0.277013,-0.205173
1.08159,-0.282043,-0.206069
1.0806,-0.285817,-0.206069
1.08332,-0.294673,-0.206964
1.09175,-0.301123,-0.208755
1.09543,-0.306284,-0.20965
1.09907,-0.311474,-0.210546
1.10742,-0.318078,-0.212337
1.11102,-0.323343,-0.213232
1.11459,-0.328637,-0.214127
1.11344,-0.332525,-0.214127
1.11567,-0.342147,-0.215023
1.11447,-0.346039,-0.215023
1.11794,-0.351429,-0.215918
1.1167,-0.355329,-0.215918
1.11546,-0.359225,-0.215918
1.11419,-0.363116,-0.215918
1.11292,-0.367003,-0.215918
1.11163,-0.370886,-0.215918
1.11033,-0.374764,-0.215918
1.11366,-0.380253,-0.216814
1.11233,-0.384138,-0.216814
1.11562,-0.389666,-0.217709
1.11888,-0.395222,-0.218604
1.03468,-0.139006,-0.192638
1.03906,-0.143319,-0.193533
1.03855,-0.146945,-0.193533
1.03317,-0.149833,-0.192638
1.03264,-0.153439,-0.192638
1.02724,-0.156272,-0.191743
1.03154,-0.160644,-0.192638
1.03583,-0.165048,-0.193533
1.0498,-0.171126,-0.19622
1.05889,-0.176466,-0.19801
1.07273,-0.183101,-0.200697
1.08177,-0.188592,-0.202487
1.08594,-0.193257,-0.203383
1.0901,-0.197954,-0.204278
1.09423,-0.202682,-0.205173
1.09834,-0.207442,-0.206069
1.10169,-0.216079,-0.206964
1.10575,-0.220915,-0.20786
1.10497,-0.224774,-0.20786
1.10899,-0.229655,-0.208755
1.11216,-0.23845,-0.20965
1.11132,-0.242331,-0.20965
1.0666,-0.241955,-0.129238
1.08509,-0.250258,-0.131482
1.10353,-0.258694,-0.133725
1.12581,-0.272372,-0.13653
1.14413,-0.281152,-0.138774
1.13832,-0.283914,-0.138213
1.12771,-0.285393,-0.137091
1.1219,-0.288065,-0.13653
1.11609,-0.290699,-0.135969
1.11506,-0.294593,-0.135969
1.11882,-0.299797,-0.13653
1.12734,-0.306361,-0.137652
1.13105,-0.311641,-0.138213
1.13473,-0.316951,-0.138774
1.13362,-0.32091,-0.138774
1.13611,-0.33023,-0.139335
1.13971,-0.335624,-0.139896
1.13853,-0.3396,-0.139896
1.13734,-0.343573,-0.139896
1.13613,-0.347541,-0.139896
1.13479,-0.3519,-0.139896
1.13356,-0.355859,-0.139896
1.13703,-0.361345,-0.140457
1.13577,-0.365312,-0.140457
1.1392,-0.370839,-0.141018
1.14261,-0.376393,-0.141579
1.14129,-0.38038,-0.141579
1.0311,-0.16376,-0.123628
1.03542,-0.168186,-0.124189
1.02503,-0.170109,-0.123067
1.02376,-0.177619,-0.123067
1.05734,-0.187475,-0.126994
1.06156,-0.19208,-0.127555
1.04624,-0.192989,-0.125872
1.05044,-0.197588,-0.126433
1.04974,-0.201254,-0.126433
1.05318,-0.209577,-0.126994
1.0573,-0.214269,-0.127555
1.05655,-0.217959,-0.127555
1.05578,-0.221645,-0.127555
1.055,-0.225329,-0.127555
1.05421,-0.229011,-0.127555
1.0534,-0.232689,-0.127555
1.04699,-0.141944,-0.274958
1.05608,-0.146879,-0.277485
1.06035,-0.151222,-0.278749
1.0694,-0.156272,-0.281276
1.07358,-0.161068,-0.282539
1.08258,-0.166233,-0.285067
1.09156,-0.171463,-0.287594
1.09573,-0.176015,-0.288857
1.09989,-0.180598,-0.290121
1.10338,-0.189064,-0.291384
1.10271,-0.192915,-0.291384
1.1068,-0.197589,-0.292648
1.1061,-0.201451,-0.292648
1.10942,-0.210044,-0.293911
1.11344,-0.214808,-0.295175
1.11268,-0.218693,-0.295175
1.11666,-0.223501,-0.296439
1.12062,-0.22834,-0.297702
1.12373,-0.237133,-0.298966
1.12678,-0.245981,-0.300229
1.12583,-0.250305,-0.300229
1.1155,-0.252147,-0.297702
1.10989,-0.25498,-0.296439
1.09956,-0.256701,-0.293911
1.09395,-0.259445,-0.292648
1.09304,-0.263263,-0.292648
1.09587,-0.272029,-0.293911
1.09492,-0.275852,-0.293911
1.09395,-0.279672,-0.293911
1.09296,-0.283489,-0.293911
1.09564,-0.292336,-0.295175
1.09929,-0.297399,-0.296439
1.09824,-0.301234,-0.296439
1.10185,-0.306338,-0.297702
1.10544,-0.311472,-0.298966
1.109,-0.316633,-0.300229
1.11255,-0.321824,-0.301493
1.11606,-0.327043,-0.302756
1.11956,-0.33229,-0.30402
1.12303,-0.337566,-0.305283
1.12648,-0.342871,-0.306547
1.12991,-0.348204,-0.307811
1.12856,-0.352539,-0.307811
1.12733,-0.356476,-0.307811
1.05235,-0.132841,-0.151933
1.05188,-0.136514,-0.151933
1.04648,-0.139558,-0.151245
1.04599,-0.14321,-0.151245
1.05527,-0.148361,-0.152621
1.05963,-0.152913,-0.153309
1.06399,-0.157308,-0.153997
1.06718,-0.16919,-0.154685
1.06658,-0.172914,-0.154685
1.06597,-0.176636,-0.154685
1.0696,-0.18489,-0.155373
1.06895,-0.188622,-0.155373
1.06828,-0.192352,-0.155373
1.0676,-0.19608,-0.155373
1.06691,-0.199806,-0.155373
1.07108,-0.20443,-0.156061
1.07522,-0.209087,-0.156749
1.07935,-0.213774,-0.157438
1.08346,-0.218493,-0.158126
1.08269,-0.222274,-0.158126
1.08676,-0.227038,-0.158814
1.08991,-0.23602,-0.159502
1.09308,-0.244679,-0.16019
1.09617,-0.253394,-0.160878
1.09528,-0.257219,-0.160878
1.09438,-0.261041,-0.160878
1.10792,-0.26828,-0.162942
1.11179,-0.273302,-0.16363
1.10505,-0.279867,-0.162942
1.10406,-0.283722,-0.162942
1.10307,-0.287575,-0.162942
1.10685,-0.292664,-0.16363
1.11061,-0.297784,-0.164318
1.10478,-0.300384,-0.16363
1.12285,-0.309403,-0.166383
1.12654,-0.314628,-0.167071
1.12543,-0.318558,-0.167071
1.12318,-0.326408,-0.167071
1.11728,-0.328952,-0.166383
1.12088,-0.334241,-0.167071
1.12914,-0.341158,-0.168447
1.13263,-0.346725,-0.169135
1.13491,-0.356082,-0.169823
1.13839,-0.361517,-0.170511
1.13712,-0.365489,-0.170511
1.13584,-0.369456,-0.170511
1.13925,-0.374943,-0.171199
1.13794,-0.378917,-0.171199
1.13996,-0.388426,-0.171887
1.08632,-0.231511,-0.111701
1.08946,-0.240516,-0.112172
1.09261,-0.249197,-0.112643
1.09569,-0.257934,-0.113114
1.09871,-0.266727,-0.113586
1.10261,-0.271727,-0.114057
1.10649,-0.276757,-0.114528
1.11035,-0.281818,-0.114999
1.11419,-0.286909,-0.11547
1.11697,-0.295931,-0.115941
1.12075,-0.301095,-0.116413
1.1245,-0.30629,-0.116884
1.12823,-0.311514,-0.117355
1.13193,-0.316768,-0.117826
1.13562,-0.322052,-0.118297
1.13813,-0.33134,-0.118768
1.13696,-0.33531,-0.118768
1.13579,-0.339277,-0.118768
1.1346,-0.34324,-0.118768
1.13681,-0.353,-0.119239
1.13557,-0.356966,-0.119239
1.1378,-0.366388,-0.119711
1.14125,-0.371877,-0.120182
1.14468,-0.377394,-0.120653
1.11616,-0.361118,-0.083147
1.11964,-0.36654,-0.0834668
1.1231,-0.371991,-0.0837866
1.11262,-0.338796,-0.0890023
1.11488,-0.348418,-0.089351
1.11365,-0.352307,-0.089351
1.11717,-0.357706,-0.0896998
1.11939,-0.367042,-0.0900486
1.12283,-0.37251,-0.0903974
1.10441,-0.311833,-0.0947034
1.10811,-0.317067,-0.0950827
1.11905,-0.332946,-0.0962207
1.11789,-0.33685,-0.0962207
1.12027,-0.346127,-0.0966
1.12257,-0.355454,-0.0969793
1.12607,-0.360901,-0.0973586
1.12813,-0.370711,-0.0977379
1.13024,-0.380176,-0.0981173
1.08744,-0.275567,-0.0987486
1.0903,-0.284437,-0.0991554
1.09411,-0.289544,-0.0995623
1.0979,-0.29468,-0.0999691
1.10167,-0.299847,-0.100376
1.11021,-0.306396,-0.10119
1.12128,-0.322214,-0.10241
1.12378,-0.33147,-0.102817
1.12261,-0.335391,-0.102817
1.12488,-0.345099,-0.103224
1.12842,-0.350527,-0.10363
1.13416,-0.365433,-0.104444
