x,y,z
1.31788,0.238984,0.0410324
1.30886,0.23268,0.0406316
1.31538,0.224353,0.040832
1.31122,0.218961,0.0406316
1.31692,0.215165,0.040832
1.31766,0.210567,0.040832
1.32332,0.206714,0.0410324
1.32898,0.202824,0.0412329
1.33463,0.198898,0.0414333
1.34026,0.194934,0.0416337
1.35083,0.191611,0.0420345
1.35644,0.187557,0.0422349
1.36204,0.183465,0.0424353
1.36268,0.17871,0.0424353
1.35833,0.173342,0.0422349
1.35455,0.16328,0.0420345
1.35511,0.158551,0.0420345
1.35565,0.15382,0.0420345
1.35618,0.149086,0.0420345
1.3219,0.140811,0.0406316
1.33325,0.127869,0.0410324
1.34862,0.124522,0.0416337
1.39883,0.124004,0.0436378
1.37934,0.117514,0.0428362
1.3897,0.113467,0.043237
1.37514,0.107514,0.0426358
1.36554,0.102016,0.0422349
1.36589,0.097248,0.0422349
1.36622,0.0924792,0.0422349
1.37152,0.0880071,0.0424353
1.37681,0.0834991,0.0426358
1.37709,0.0786922,0.0426358
1.37262,0.0688489,0.0424353
1.36786,0.0638473,0.0422349
1.36308,0.0588792,0.0420345
1.35829,0.0539459,0.0418341
1.35364,0.0443216,0.0416337
1.35378,0.0395965,0.0416337
1.35391,0.0348704,0.0416337
1.35902,0.0302318,0.0418341
1.36411,0.0255587,0.0420345
1.39916,0.0211695,0.0434374
1.34427,0.0158917,0.0412329
1.36435,-0.00301467,0.0420345
1.40929,-0.00824011,0.0438382
1.40925,-0.0131594,0.0438382
1.38922,-0.0177333,0.0430366
1.38415,-0.0224787,0.0428362
1.37408,-0.0270678,0.0424353
1.36898,-0.0317254,0.0422349
1.37885,-0.036816,0.0426358
1.3887,-0.0419758,0.0430366
1.39853,-0.0472048,0.0434374
1.40834,-0.052503,0.0438382
1.41314,-0.0576444,0.0440387
1.41293,-0.0625769,0.0440387
1.40771,-0.0672479,0.0438382
1.40248,-0.0718833,0.0436378
1.39723,-0.076483,0.0434374
1.39696,-0.0813598,0.0434374
1.39168,-0.0859054,0.043237
1.39137,-0.0907627,0.043237
1.39105,-0.0956189,0.043237
1.3907,-0.100474,0.043237
1.39034,-0.105328,0.043237
1.38997,-0.11018,0.043237
1.3846,-0.114597,0.0430366
1.38419,-0.11943,0.0430366
1.37879,-0.123791,0.0428362
1.38332,-0.12909,0.0430366
1.36795,-0.132406,0.0424353
1.38686,-0.144107,0.043237
1.35243,0.0476126,0.0652871
1.3875,0.0441471,0.067322
1.38765,0.0393031,0.067322
1.38279,0.0343148,0.0670313
1.38789,0.0296152,0.067322
1.38798,0.0247701,0.067322
1.39305,0.0200176,0.0676127
1.3981,0.0152293,0.0679034
1.39815,0.0103492,0.0679034
1.40317,0.00550909,0.0681941
1.40318,0.000610725,0.0681941
1.40317,-0.00428765,0.0681941
1.39816,-0.00917594,0.0679034
1.39811,-0.0145415,0.0679034
1.39306,-0.019373,0.0676127
1.39298,-0.0242356,0.0676127
1.39788,-0.0291815,0.0679034
1.36284,-0.0333534,0.0658685
1.40195,-0.0586382,0.0681941
1.40174,-0.0635316,0.0681941
1.39154,-0.0679783,0.0676127
1.39129,-0.0728353,0.0676127
1.39103,-0.0776913,0.0676127
1.39075,-0.0825464,0.0676127
1.39045,-0.0874005,0.0676127
1.39014,-0.0922536,0.0676127
1.39479,-0.0974329,0.0679034
1.39444,-0.102301,0.0679034
1.39407,-0.107168,0.0679034
1.39867,-0.112413,0.0681941
1.39827,-0.117294,0.0681941
1.39785,-0.122175,0.0681941
1.39741,-0.127053,0.0681941
1.39696,-0.13193,0.0681941
1.39649,-0.136806,0.0681941
1.39601,-0.14168,0.0681941
1.34873,0.258254,0.0664499
1.34962,0.253546,0.0664499
1.36031,0.250683,0.0670313
1.36117,0.245932,0.0670313
1.35711,0.240289,0.0667406
1.35794,0.235551,0.0667406
1.35384,0.229952,0.0664499
1.35463,0.225225,0.0664499
1.35541,0.220495,0.0664499
1.35617,0.215763,0.0664499
1.35692,0.211028,0.0664499
1.35765,0.20629,0.0664499
1.35836,0.201549,0.0664499
1.36893,0.198279,0.0670313
1.30725,0.170474,0.0632523
1.36723,0.173708,0.0667406
1.37773,0.170199,0.067322
1.37336,0.164774,0.0670313
1.36897,0.15938,0.0667406
1.37448,0.155182,0.0670313
1.3115,0.133907,0.0632523
1.37155,0.135464,0.0667406
1.36208,0.129688,0.0661592
1.37743,0.126363,0.0670313
1.37289,0.121092,0.0667406
1.37333,0.116056,0.0667406
1.3737,0.111504,0.0667406
1.37412,0.106232,0.0667406
1.37448,0.101434,0.0667406
1.37483,0.0966356,0.0667406
1.37516,0.0918368,0.0667406
1.37547,0.0870357,0.0667406
1.37577,0.0822335,0.0667406
1.37604,0.077431,0.0667406
1.34142,0.0706405,0.0647057
1.383,0.252468,0.100188
1.37896,0.246784,0.0997807
1.3749,0.241131,0.0993739
1.38065,0.237151,0.0997807
1.38147,0.23233,0.0997807
1.38227,0.227507,0.0997807
1.38798,0.223449,0.100188
1.39368,0.219355,0.100594
1.38458,0.213019,0.0997807
1.37052,0.206032,0.0985602
1.3515,0.198445,0.0969329
1.34856,0.183633,0.0965261
1.37391,0.182082,0.0985602
1.38443,0.178513,0.0993739
1.37515,0.172485,0.0985602
1.38564,0.168844,0.0993739
1.38622,0.164006,0.0993739
1.38678,0.159166,0.0993739
1.3829,0.14897,0.098967
1.39829,0.145622,0.100188
1.38887,0.139788,0.0993739
1.40424,0.136315,0.100594
1.39974,0.130971,0.100188
1.40019,0.126084,0.100188
1.40062,0.121196,0.100188
1.39607,0.115917,0.0997807
1.39646,0.111043,0.0997807
1.39684,0.106168,0.0997807
1.3972,0.101291,0.0997807
1.39755,0.0964132,0.0997807
1.39788,0.0915346,0.0997807
1.39819,0.0866548,0.0997807
1.39848,0.0817733,0.0997807
1.39876,0.0768915,0.0997807
1.404,0.0722411,0.100188
1.39926,0.0671244,0.0997807
1.38953,0.0618435,0.098967
1.36483,0.056088,0.0969329
1.36535,0.0417929,0.0969329
1.39538,0.0376942,0.0993739
1.41045,0.0331053,0.100594
1.38564,0.0277987,0.0985602
1.40566,0.0231986,0.100188
1.40574,0.018292,0.100188
1.41576,0.0134333,0.101001
1.3909,0.00360143,0.098967
1.40087,-0.00130942,0.0997807
1.40584,-0.00624458,0.100188
1.42076,-0.0113397,0.101408
1.41075,-0.016139,0.100594
1.41068,-0.0210633,0.100594
1.40562,-0.0258726,0.100188
1.40552,-0.0307789,0.100188
1.4054,-0.0356849,0.100188
1.41025,-0.0407574,0.100594
1.41508,-0.0458642,0.101001
1.41491,-0.0508034,0.101001
1.4197,-0.0559612,0.101408
1.42448,-0.0611531,0.101815
1.42425,-0.066125,0.101815
1.42899,-0.0713674,0.102222
1.42873,-0.0763551,0.102222
1.42846,-0.0813418,0.102222
1.42319,-0.0860042,0.101815
1.42288,-0.0909716,0.101815
1.42256,-0.0959378,0.101815
1.42221,-0.100903,0.101815
1.42682,-0.106259,0.102222
1.42644,-0.111239,0.102222
1.43101,-0.116645,0.102628
1.43059,-0.12164,0.102628
1.43016,-0.126633,0.102628
1.41979,-0.130665,0.101815
1.46764,0.0776736,0.164007
1.4679,0.0725497,0.164007
1.46815,0.0674256,0.164007
1.46837,0.0623,0.164007
1.46858,0.0571744,0.164007
1.46877,0.052048,0.164007
1.46895,0.0469203,0.164007
1.4691,0.0417921,0.164007
1.46924,0.036664,0.164007
1.46936,0.0315355,0.164007
1.46946,0.0264059,0.164007
1.4745,0.0213702,0.164617
1.47457,0.0162227,0.164617
1.47462,0.0108215,0.164617
1.47465,0.00541387,0.164617
1.47466,0.000265979,0.164617
1.47465,-0.00488192,0.164617
1.46966,-0.0100169,0.164007
1.46962,-0.0151469,0.164007
1.46956,-0.0202768,0.164007
1.46948,-0.0254063,0.164007
1.46938,-0.0305356,0.164007
1.47422,-0.0357632,0.164617
1.47409,-0.040909,0.164617
1.4789,-0.0461877,0.165226
1.47873,-0.0513497,0.165226
1.4835,-0.0566791,0.165836
1.48329,-0.0618572,0.165836
1.48307,-0.0670345,0.165836
1.48778,-0.0724309,0.166445
1.48752,-0.0776238,0.166445
1.48724,-0.0828157,0.166445
1.48694,-0.0880066,0.166445
1.48663,-0.0931965,0.166445
1.49125,-0.0986917,0.167054
1.49089,-0.103896,0.167054
1.49052,-0.1091,0.167054
1.49508,-0.114661,0.167664
1.49467,-0.119879,0.167664
1.49424,-0.125095,0.167664
1.45413,0.273477,0.165226
1.4502,0.267478,0.164617
1.43648,0.259701,0.162789
1.44226,0.255573,0.163398
1.44315,0.250537,0.163398
1.4489,0.246351,0.164007
1.44975,0.241292,0.164007
1.44569,0.23541,0.163398
1.4465,0.230363,0.163398
1.4473,0.225312,0.163398
1.44808,0.220259,0.163398
1.43412,0.21295,0.16157
1.41522,0.205009,0.159133
1.38223,0.190229,0.154867
1.41795,0.185229,0.159133
1.44811,0.184166,0.162789
1.44382,0.178479,0.162179
1.45428,0.174665,0.163398
1.44995,0.168991,0.162789
1.44561,0.16335,0.162179
1.44617,0.158303,0.162179
1.44671,0.153253,0.162179
1.44726,0.147953,0.162179
1.44777,0.142894,0.162179
1.4532,0.138338,0.162789
1.4537,0.133008,0.162789
1.45909,0.128389,0.163398
1.45953,0.123295,0.163398
1.45996,0.1182,0.163398
1.46036,0.113103,0.163398
1.46074,0.108004,0.163398
1.46111,0.102904,0.163398
1.46146,0.0978045,0.163398
1.4618,0.0927021,0.163398
1.42422,0.0424149,0.0292699
1.42936,0.0375955,0.0294154
1.43947,0.0328765,0.0297063
1.38961,0.0266744,0.0282518
1.38909,-0.0465742,0.0282518
1.4187,-0.0573539,0.0291245
1.3883,-0.0659644,0.0282518
1.35188,0.187952,0.0275245
1.35552,0.159599,0.0275245
1.37592,0.157222,0.0281063
1.41618,0.156994,0.0292699
1.41175,0.151495,0.0291245
1.38743,0.14388,0.0283972
1.37798,0.137996,0.0281063
1.36851,0.132181,0.0278154
1.38268,0.189154,0.0126857
1.38844,0.140784,0.0126857
1.29981,0.226441,0.0402308
1.35893,0.1686,0.0422349
1.37736,0.0738844,0.0426358
1.35847,0.0492039,0.0418341
1.30935,0.0110714,0.03983
1.30439,0.00649958,0.0396295
1.34437,0.00181407,0.0412329
1.33871,0.0664756,-0.00334857
1.33894,0.0618019,-0.00334857
1.33914,0.0571274,-0.00334857
1.33934,0.0524528,-0.00334857
1.33951,0.0477776,-0.00334857
1.33967,0.0431012,-0.00334857
1.33981,0.0384243,-0.00334857
1.33494,0.0335975,-0.00337763
1.33005,0.0288051,-0.00340669
1.33522,0.0196166,-0.00337763
1.34028,0.0150356,-0.00334857
1.34532,0.0101857,-0.00331951
1.35035,0.00529841,-0.00329045
1.34536,0.000558247,-0.00331951
1.34536,-0.00413829,-0.00331951
1.34033,-0.00882535,-0.00334857
1.34029,-0.0135039,-0.00334857
1.34017,-0.0228605,-0.00334857
1.34508,-0.027617,-0.00331951
1.34997,-0.032408,-0.00329045
1.35985,-0.037347,-0.00323233
1.33972,-0.04157,-0.00334857
1.34956,-0.0465429,-0.00329045
1.3492,-0.0559634,-0.00329045
1.39896,-0.0626792,-0.00299986
1.34878,-0.0653811,-0.00329045
1.35853,-0.0705599,-0.00323233
1.35328,-0.0750487,-0.00326139
1.35301,-0.0797721,-0.00326139
1.35273,-0.0844945,-0.00326139
1.35242,-0.0892158,-0.00326139
1.3521,-0.0939361,-0.00326139
1.35177,-0.0986553,-0.00326139
1.35141,-0.103373,-0.00326139
1.35603,-0.108465,-0.00323233
1.35564,-0.113198,-0.00323233
1.36022,-0.118339,-0.00320327
1.3598,-0.123086,-0.00320327
1.35936,-0.127832,-0.00320327
1.35891,-0.132576,-0.00320327
1.35844,-0.137319,-0.00320327
1.35795,-0.14206,-0.00320327
1.3287,-0.0743689,-0.010875
1.33314,-0.0839492,-0.010875
1.33284,-0.0886022,-0.010875
1.33252,-0.0932542,-0.010875
1.33219,-0.097905,-0.010875
1.33184,-0.102555,-0.010875
1.33147,-0.107203,-0.010875
1.33107,-0.112083,-0.010875
1.33521,-0.122051,-0.010875
1.33478,-0.126711,-0.010875
1.33433,-0.13137,-0.010875
1.33386,-0.136027,-0.010875
1.33338,-0.140682,-0.010875
1.33636,-0.108566,-0.0184014
1.33598,-0.113233,-0.0184014
1.33555,-0.118128,-0.0184014
1.33513,-0.122789,-0.0184014
1.33469,-0.127449,-0.0184014
1.33424,-0.132107,-0.0184014
1.33826,-0.141953,-0.0184305
1.33363,0.0579794,0.0266518
1.34381,0.0537687,0.0269427
1.35398,0.0494878,0.0272336
1.38411,0.0458858,0.0281063
1.33473,0.0207198,0.0266518
1.35978,0.0164746,0.0273791
1.35983,0.0117282,0.0273791
1.35986,0.00698174,0.0273791
1.35988,0.00223453,0.0273791
1.35988,-0.00298292,0.0273791
1.35986,-0.0077338,0.0273791
1.35983,-0.0124806,0.0273791
1.35977,-0.0172272,0.0273791
1.3647,-0.022032,0.0275245
1.36462,-0.0267956,0.0275245
1.36951,-0.0316521,0.02767
1.36939,-0.0364324,0.02767
1.37925,-0.0414687,0.0279609
1.39851,-0.0615139,0.0285427
1.38307,-0.0705773,0.0281063
1.37283,-0.0749042,0.0278154
1.37256,-0.0796958,0.0278154
1.37228,-0.0844865,0.0278154
1.37197,-0.0892761,0.0278154
1.37165,-0.0940646,0.0278154
1.37132,-0.098852,0.0278154
1.37096,-0.103638,0.0278154
1.37558,-0.108795,0.0279609
1.37519,-0.113596,0.0279609
1.37479,-0.118396,0.0279609
1.37436,-0.123194,0.0279609
1.3789,-0.128432,0.0281063
1.38342,-0.133704,0.0282518
1.36754,-0.141877,0.0278154
1.32058,0.254573,0.0269427
1.32636,0.250913,0.0270881
1.31826,0.239814,0.0267972
1.31909,0.23521,0.0267972
1.32482,0.231487,0.0269427
1.33054,0.227727,0.0270881
1.33133,0.223081,0.0270881
1.3321,0.218432,0.0270881
1.33285,0.213781,0.0270881
1.33359,0.209127,0.0270881
1.32937,0.203691,0.0269427
1.3202,0.197526,0.0266518
1.33076,0.194405,0.0269427
1.34132,0.191214,0.0272336
1.38717,0.188082,0.0285427
1.34325,0.177157,0.0272336
1.32463,0.165211,0.0266518
1.34503,0.163082,0.0272336
1.35408,0.12548,0.0273791
1.33956,0.119587,0.0269427
1.32008,0.112882,0.0263609
1.32545,0.108701,0.0265063
1.34076,0.105315,0.0269427
1.3461,0.101031,0.0270881
1.35641,0.0970897,0.0273791
1.35674,0.0923546,0.0273791
1.35207,0.0872735,0.0272336
1.35237,0.0825536,0.0272336
1.35291,0.0731103,0.0272336
1.36888,-0.0653709,0.0199487
1.36365,-0.0698994,0.0198323
1.35841,-0.0743922,0.019716
1.35814,-0.0791334,0.019716
1.35785,-0.0838737,0.019716
1.35755,-0.088613,0.019716
1.35225,-0.0930147,0.0195997
1.35191,-0.0977344,0.0195997
1.34658,-0.102082,0.0194834
1.34622,-0.106781,0.0194834
1.34085,-0.111074,0.0193671
1.34046,-0.115754,0.0193671
1.34004,-0.120432,0.0193671
1.33957,-0.125573,0.0193671
1.33913,-0.130252,0.0193671
1.33866,-0.134925,0.0193671
1.33818,-0.139597,0.0193671
1.32124,0.254061,0.0193671
1.32298,0.244831,0.0193671
1.31974,0.234707,0.0192508
1.32055,0.230099,0.0192508
1.31719,0.220044,0.0191345
1.31795,0.215445,0.0191345
1.3187,0.210843,0.0191345
1.31943,0.206238,0.0191345
1.32014,0.201632,0.0191345
1.32083,0.197022,0.0191345
1.32151,0.192411,0.0191345
1.32218,0.187797,0.0191345
1.32282,0.18318,0.0191345
1.32346,0.178561,0.0191345
1.32407,0.17394,0.0191345
1.32467,0.169318,0.0191345
1.32086,0.15946,0.0190181
1.32141,0.154848,0.0190181
1.32691,0.150806,0.0191345
1.32742,0.146173,0.0191345
1.3329,0.142075,0.0192508
1.33836,0.13794,0.0193671
1.33883,0.133268,0.0193671
1.33929,0.128594,0.0193671
1.33973,0.123918,0.0193671
1.34015,0.11924,0.0193671
1.34056,0.114562,0.0193671
1.34095,0.109882,0.0193671
1.34631,0.105598,0.0194834
1.34667,0.100898,0.0194834
1.34701,0.0961965,0.0194834
1.34734,0.0914936,0.0194834
1.34765,0.0867903,0.0194834
1.34795,0.0820852,0.0194834
1.34822,0.0773798,0.0194834
1.34849,0.0726734,0.0194834
1.34873,0.0679655,0.0194834
1.34896,0.0632568,0.0194834
1.34917,0.0585479,0.0194834
1.34937,0.0538383,0.0194834
1.34955,0.0491275,0.0194834
1.34971,0.0444167,0.0194834
1.34986,0.0397047,0.0194834
1.34999,0.0349928,0.0194834
1.3501,0.0302805,0.0194834
1.3502,0.0255673,0.0194834
1.35028,0.0208537,0.0194834
1.35535,0.0162068,0.0195997
1.35539,0.0114759,0.0195997
1.35543,0.00674426,0.0195997
1.35544,0.00154296,0.0195997
1.35544,-0.00295047,0.0195997
1.35542,-0.00791934,0.0195997
1.35538,-0.0126541,0.0195997
1.35033,-0.0173276,0.0194834
1.34527,-0.021966,0.0193671
1.34018,-0.0265693,0.0192508
1.34008,-0.0312472,0.0192508
1.33996,-0.0359248,0.0192508
1.34982,-0.0408915,0.0194834
1.35967,-0.0459275,0.019716
1.36449,-0.0508531,0.0198323
1.32621,0.195695,0.0117259
1.35163,0.194581,0.0121622
1.39192,0.195353,0.0128603
1.36847,0.182372,0.012424
1.3443,0.174423,0.0119877
1.32563,0.162634,0.0116386
1.32123,0.157423,0.0115513
1.35157,0.156201,0.0120749
1.39683,0.156411,0.0128603
1.37251,0.148883,0.012424
1.37302,0.144091,0.012424
1.3197,0.124635,0.0114641
1.32511,0.120471,0.0115513
1.32552,0.115846,0.0115513
1.32592,0.111218,0.0115513
1.3263,0.106588,0.0115513
1.32666,0.101958,0.0115513
1.32701,0.097327,0.0115513
1.32267,0.087738,0.0114641
1.31826,0.0782156,0.0113768
1.31852,0.0736132,0.0113768
1.31877,0.0690105,0.0113768
1.319,0.0644064,0.0113768
1.31922,0.0598021,0.0113768
1.31942,0.0551971,0.0113768
1.3196,0.0505908,0.0113768
1.31977,0.0459839,0.0113768
1.31993,0.041377,0.0113768
1.32006,0.0367696,0.0113768
1.32018,0.0321612,0.0113768
1.32029,0.027553,0.0113768
1.32545,0.0183951,0.0114641
1.33054,0.00916666,0.0115513
1.33056,0.0045218,0.0115513
1.33057,-0.000122409,0.0115513
1.33056,-0.00476698,0.0115513
1.33054,-0.00941148,0.0115513
1.33044,-0.0187001,0.0115513
1.33537,-0.0234409,0.0116386
1.34527,-0.0283307,0.0118131
1.36016,-0.0334216,0.0120749
1.37003,-0.0384676,0.0122494
1.40486,-0.044416,0.0128603
1.37972,-0.0483993,0.012424
1.38953,-0.0536181,0.0125985
1.38434,-0.0582491,0.0125112
1.36915,-0.062372,0.0122494
1.35394,-0.0663894,0.0119877
1.34871,-0.0708439,0.0119004
1.34845,-0.0755513,0.0119004
1.34818,-0.0802579,0.0119004
1.34789,-0.0849634,0.0119004
1.34759,-0.0896679,0.0119004
1.34727,-0.0943713,0.0119004
1.34693,-0.0990736,0.0119004
1.34658,-0.103775,0.0119004
1.34621,-0.108474,0.0119004
1.35037,-0.118556,0.0119877
1.34997,-0.123031,0.0119877
1.34951,-0.127981,0.0119877
1.34406,-0.132422,0.0119004
1.34359,-0.137112,0.0119004
1.34757,-0.14704,0.0119877
1.32272,0.0826071,0.00362572
1.32529,0.00401607,0.00362572
1.33028,-0.0052807,0.00368237
1.33521,-0.014647,0.00373901
1.33515,-0.0193077,0.00373901
1.33508,-0.0239681,0.00373901
1.33488,-0.033288,0.00373901
1.32976,-0.0377808,0.00368237
1.32946,-0.0470632,0.00368237
1.32929,-0.0517036,0.00368237
1.3291,-0.0563434,0.00368237
1.33366,-0.065892,0.00373901
1.33343,-0.070547,0.00373901
1.33317,-0.0752011,0.00373901
1.3329,-0.0798543,0.00373901
1.3376,-0.0848474,0.00379565
1.3373,-0.089516,0.00379565
1.33698,-0.0941835,0.00379565
1.33664,-0.0988498,0.00379565
1.34588,-0.109035,0.00390894
1.35006,-0.118891,0.00396558
1.34964,-0.123603,0.00396558
1.3492,-0.128313,0.00396558
1.33833,-0.136665,0.0038523
1.35275,-0.142984,0.00402223
1.32138,0.154307,-0.00340669
1.33348,0.0708584,-0.00337763
1.33014,0.0241618,-0.00340669
1.33524,-0.0181387,-0.00337763
1.30334,0.240609,-0.00343575
1.30909,0.236973,-0.00340669
1.30007,0.230607,-0.00346481
1.31563,0.228709,-0.00337763
1.3115,0.223252,-0.00340669
1.31227,0.218672,-0.00340669
1.31302,0.21409,-0.00340669
1.31376,0.209506,-0.00340669
1.31449,0.204919,-0.00340669
1.31519,0.200329,-0.00340669
1.31094,0.194977,-0.00343575
1.31162,0.1904,-0.00343575
1.30732,0.185095,-0.00346481
1.31291,0.181238,-0.00343575
1.31354,0.176654,-0.00343575
1.31415,0.172068,-0.00343575
1.31474,0.16748,-0.00343575
1.31532,0.16289,-0.00343575
1.31588,0.158297,-0.00343575
1.32191,0.149694,-0.00340669
1.32243,0.145079,-0.00340669
1.32293,0.140461,-0.00340669
1.32343,0.135612,-0.00340669
1.3239,0.130991,-0.00340669
1.32932,0.126869,-0.00337763
1.32978,0.121996,-0.00337763
1.3302,0.117353,-0.00337763
1.3306,0.112708,-0.00337763
1.33098,0.108064,-0.00337763
1.33135,0.103417,-0.00337763
1.3317,0.0987687,-0.00337763
1.33204,0.0941199,-0.00337763
1.32738,0.0891107,-0.00340669
1.32768,0.0844764,-0.00340669
1.29805,0.215249,-0.010875
1.2988,0.210717,-0.010875
1.29953,0.206182,-0.010875
1.29599,0.196347,-0.010875
1.29104,0.158847,-0.010875
1.29656,0.15494,-0.010875
1.30205,0.150998,-0.010875
1.30257,0.146453,-0.010875
1.30805,0.142454,-0.010875
1.30854,0.137887,-0.010875
1.30901,0.133319,-0.010875
1.30947,0.128749,-0.010875
1.30493,0.123697,-0.010875
1.30535,0.119141,-0.010875
1.30576,0.114584,-0.010875
1.30615,0.110026,-0.010875
1.30653,0.105465,-0.010875
1.30689,0.100904,-0.010875
1.30723,0.0963416,-0.010875
1.30756,0.0917782,-0.010875
1.30788,0.087213,-0.010875
1.30817,0.0826474,-0.010875
1.30845,0.0780802,-0.010875
1.30872,0.0735126,-0.010875
1.30897,0.0689442,-0.010875
1.3092,0.0643743,-0.010875
1.31441,0.06004,-0.010875
1.31461,0.0554517,-0.010875
1.3148,0.0508628,-0.010875
1.31497,0.0462727,-0.010875
1.31512,0.041682,-0.010875
1.31526,0.0370914,-0.010875
1.31538,0.0325003,-0.010875
1.31548,0.0279082,-0.010875
1.31057,0.0232196,-0.010875
1.31065,0.0186443,-0.010875
1.31071,0.0138401,-0.010875
1.31577,0.00471547,-0.010875
1.31578,-0.000106791,-0.010875
1.32077,-0.00470898,-0.010875
1.32075,-0.0093193,-0.010875
1.32571,-0.013974,-0.010875
1.32565,-0.0186015,-0.010875
1.32558,-0.0232288,-0.010875
1.32549,-0.0278558,-0.010875
1.32538,-0.0324824,-0.010875
1.32026,-0.0369769,-0.010875
1.32222,0.189728,-0.0183724
1.34764,0.188539,-0.0185177
1.34829,0.183834,-0.0185177
1.31918,0.175221,-0.0183433
1.3049,0.168715,-0.0182561
1.29733,0.0945429,-0.018169
1.29765,0.0900135,-0.018169
1.30294,0.0858038,-0.018198
1.30324,0.0812555,-0.018198
1.30351,0.0767061,-0.018198
1.30377,0.0721552,-0.018198
1.30402,0.067604,-0.018198
1.30424,0.0630514,-0.018198
1.30446,0.0584986,-0.018198
1.29966,0.0537462,-0.018169
1.29984,0.0492089,-0.018169
1.3,0.044671,-0.018169
1.30015,0.0401331,-0.018169
1.30028,0.0355948,-0.018169
1.3004,0.0310554,-0.018169
1.30558,0.022053,-0.018198
1.3107,0.0129803,-0.0182271
1.31074,0.00840463,-0.0182271
1.31076,0.00382892,-0.0182271
1.31077,-0.000746177,-0.0182271
1.30573,-0.00985158,-0.018198
1.30569,-0.0144094,-0.018198
1.30563,-0.018967,-0.018198
1.31535,-0.0329035,-0.0182561
1.30411,0.0567378,-0.0255428
1.30947,0.0477908,-0.025601
1.30963,0.0432199,-0.025601
1.30977,0.0386484,-0.025601
1.3099,0.0340759,-0.025601
1.3151,0.0250018,-0.0256592
1.31518,0.0204114,-0.0256592
1.32024,0.0158567,-0.0257174
1.32029,0.0112484,-0.0257174
1.32032,0.00663926,-0.0257174
1.32034,0.00203069,-0.0257174
1.32034,-0.00257815,-0.0257174
1.32532,-0.0072376,-0.0257756
1.32529,-0.0118638,-0.0257756
1.32524,-0.0164898,-0.0257756
1.32517,-0.0211157,-0.0257756
1.32509,-0.0257412,-0.0257756
1.31999,-0.0302287,-0.0257174
1.31642,0.224641,0.0191345
1.2989,0.238287,0.0113768
1.29972,0.233752,0.0113768
1.30053,0.229213,0.0113768
1.30132,0.224673,0.0113768
1.3021,0.220128,0.0113768
1.30286,0.215582,0.0113768
1.3036,0.211033,0.0113768
1.30433,0.206481,0.0113768
1.30574,0.19737,0.0113768
1.3201,0.166643,0.0115513
1.29871,0.237765,0.00356908
1.29126,0.222503,0.00345579
1.29203,0.217995,0.00345579
1.29772,0.214273,0.00351244
1.29846,0.209742,0.00351244
1.29424,0.204452,0.00345579
1.29495,0.199934,0.00345579
1.29069,0.194692,0.00339915
1.31373,0.174674,0.00362572
1.31929,0.170704,0.00368237
1.31549,0.160907,0.00362572
1.31161,0.151171,0.00356908
1.3171,0.147123,0.00362572
1.31761,0.142524,0.00362572
1.3181,0.137924,0.00362572
1.31857,0.133322,0.00362572
1.31903,0.128719,0.00362572
1.31947,0.124113,0.00362572
1.31989,0.119508,0.00362572
1.32107,0.105678,0.00362572
1.32143,0.101067,0.00362572
1.32211,0.0918388,0.00362572
1.32242,0.0872235,0.00362572
1.318,0.0777197,0.00356908
1.31827,0.0731188,0.00356908
1.31851,0.0685164,0.00356908
1.31375,0.0636965,0.00351244
1.31396,0.0591106,0.00351244
1.31416,0.0545233,0.00351244
1.31434,0.0499353,0.00351244
1.31451,0.0453474,0.00351244
1.31466,0.0407589,0.00351244
1.31979,0.0362818,0.00356908
1.31502,0.0269894,0.00351244
1.3151,0.0223992,0.00351244
1.31517,0.0178088,0.00351244
1.31523,0.0132175,0.00351244
1.32026,0.00863397,0.00356908
1.32529,-0.000610056,0.00362572
1.30515,-0.0161194,-0.0324715
1.30509,-0.0206752,-0.0324715
1.32515,-0.0277914,-0.0406518
1.32505,-0.0324169,-0.0406518
1.31481,-0.0506163,-0.010875
1.31942,-0.060013,-0.010875
1.32476,-0.0516703,-0.0183142
1.32457,-0.0562942,-0.0183142
1.32437,-0.0609175,-0.0183142
1.29652,0.224306,-0.010875
1.2973,0.219779,-0.010875
