x,y,z
2.24761,0.0329545,0.0261692
2.23578,0.0175595,0.0260295
2.22783,0.00972165,0.0259363
2.23585,0.00234163,0.0260295
2.20826,0.00231274,-0.128604
2.21065,0.00231525,-0.0771977
2.20784,-0.00577938,-0.0257035
2.20242,-0.00576518,-0.205592
2.23984,-0.00586314,0.026076
2.21624,-0.00580135,-0.129069
2.21464,-0.00579718,-0.0773373
2.21581,-0.0135356,-0.0257966
2.20238,-0.0134536,-0.205592
2.2162,-0.013538,-0.129069
2.21861,-0.0135527,-0.0774769
2.21975,-0.0209207,-0.0258432
2.20233,-0.0207565,-0.205592
2.22413,-0.020962,-0.129534
2.22366,-0.0291093,-0.0258898
2.2102,-0.0289331,-0.206336
2.25165,-0.0294758,0.0262157
2.23203,-0.0292188,-0.129999
2.23445,-0.0292505,-0.0780353
2.21955,-0.036417,-0.0258432
2.22204,-0.0364578,-0.207451
2.23192,-0.0366199,-0.129999
2.23833,-0.0367252,-0.0781749
2.23541,-0.0444833,-0.0260295
2.21792,-0.0441353,-0.207079
2.23976,-0.04457,-0.130464
2.23819,-0.0445388,-0.0781749
2.23524,-0.0522856,-0.0260295
2.22969,-0.0521559,-0.208195
2.26323,-0.0529403,0.0263554
2.2356,-0.0522941,-0.130231
2.24602,-0.0525377,-0.0784541
2.23904,-0.0601958,-0.026076
2.23746,-0.0601534,-0.208938
2.27502,-0.0611632,0.0264951
2.24738,-0.06042,-0.130929
2.24982,-0.0604855,-0.0785937
2.25082,-0.0679822,-0.0262157
2.23725,-0.0675723,-0.208938
2.27881,-0.0688274,0.0265417
2.24717,-0.0678718,-0.130929
2.2536,-0.0680661,-0.0787333
2.24258,-0.0755687,-0.0261226
2.24496,-0.0756491,-0.209682
2.28255,-0.0769158,0.0265882
2.25889,-0.0761184,-0.131627
2.26134,-0.076201,-0.0790125
2.25429,-0.0838429,-0.0262623
2.25662,-0.0839297,-0.210797
2.29026,-0.0851808,0.0266814
2.2626,-0.084152,-0.131859
2.26106,-0.0840947,-0.0790125
2.26198,-0.0920371,-0.0263554
2.25234,-0.0916449,-0.210425
2.29794,-0.0935006,0.0267745
2.26229,-0.09205,-0.131859
2.26874,-0.0923123,-0.0792917
2.26963,-0.100284,-0.0264485
2.25598,-0.0996808,-0.210797
2.3016,-0.101696,0.0268211
2.26994,-0.100297,-0.132324
2.2724,-0.100406,-0.0794313
2.26527,-0.108016,-0.026402
2.26755,-0.108125,-0.211912
2.22366,0.00271713,0.0388142
2.27755,-0.108601,-0.13279
2.28002,-0.108719,-0.0797105
2.27287,-0.116331,-0.0264951
2.20396,-0.00499976,-0.0128095
2.26716,-0.116039,-0.211912
2.30882,-0.118171,0.0269142
2.20067,-0.00499231,-0.179653
2.21566,-0.0050263,0.0386745
2.27716,-0.11655,-0.13279
2.20497,-0.00500205,-0.115558
2.27962,-0.116677,-0.0797105
2.19503,-0.0126423,-0.0638828
2.28044,-0.124701,-0.0265882
2.21193,-0.0127396,-0.012856
2.2747,-0.124387,-0.212656
2.31239,-0.126449,0.0269608
2.20862,-0.0127206,-0.180304
2.21563,-0.0127609,0.0386745
2.28471,-0.124935,-0.133255
2.21293,-0.0127454,-0.115976
2.2792,-0.124634,-0.0797105
2.19498,-0.020305,-0.0638828
2.28797,-0.133126,-0.0266814
2.1942,-0.0202978,-0.279305
2.20787,-0.0204242,-0.0128327
2.27425,-0.132328,-0.212656
2.32391,-0.135217,0.0271004
2.22052,-0.0205412,-0.18128
2.21957,-0.0205324,0.0387443
2.28426,-0.13291,-0.133255
2.21287,-0.0204705,-0.115976
2.29073,-0.133286,-0.0801292
2.1989,-0.0272497,-0.0639992
2.29553,-0.140803,-0.0267745
2.20603,-0.0273381,-0.280821
2.22779,-0.0276077,-0.0129489
2.27382,-0.139471,-0.212656
2.32348,-0.142517,0.0271004
2.22443,-0.0275661,-0.181606
2.22349,-0.0275544,0.0388142
2.2918,-0.140574,-0.13372
2.21279,-0.0274219,-0.115976
2.29429,-0.140726,-0.0802688
2.20679,-0.0350517,-0.0642319
2.29502,-0.148814,-0.0267745
2.20989,-0.0351009,-0.281326
2.23168,-0.0354471,-0.0129722
2.28525,-0.14818,-0.213771
2.32296,-0.150626,0.0271004
2.22831,-0.0353934,-0.181931
2.23538,-0.0355058,0.0390236
2.29528,-0.148831,-0.133952
2.21668,-0.0352088,-0.116186
2.29777,-0.148992,-0.0804084
2.20665,-0.0427552,-0.0642319
2.30247,-0.157371,-0.0268676
2.21372,-0.0428921,-0.281831
2.24754,-0.0435474,-0.0130652
2.28471,-0.156157,-0.213771
2.3304,-0.15928,0.0271936
2.22817,-0.0431721,-0.181931
2.29873,-0.157115,-0.134185
2.22453,-0.0431015,-0.116605
2.30123,-0.157285,-0.080548
2.21448,-0.050641,-0.0644646
2.3059,-0.165694,-0.0269142
2.21356,-0.0506198,-0.281831
2.23938,-0.0512102,-0.0130187
2.29607,-0.164988,-0.214887
2.33781,-0.167987,0.0272867
2.23199,-0.0510413,-0.182256
2.24707,-0.0513862,0.039233
2.30215,-0.165425,-0.134417
2.23235,-0.0510496,-0.117023
2.29667,-0.165031,-0.0804084
2.21829,-0.0584754,-0.064581
2.30929,-0.174042,-0.0269608
2.2213,-0.0585547,-0.282841
2.23519,-0.0589208,-0.0129954
2.29151,-0.172702,-0.214515
2.33721,-0.176146,0.0272867
2.23977,-0.0590416,-0.182907
2.24688,-0.059229,0.039233
2.29758,-0.173159,-0.134185
2.23216,-0.058841,-0.117023
2.30406,-0.173647,-0.0806876
2.21408,-0.066099,-0.0644646
2.32063,-0.183045,-0.0271004
2.22108,-0.0663082,-0.282841
2.24696,-0.0670808,-0.0130652
2.29883,-0.181326,-0.215258
2.34855,-0.185247,0.0274264
2.2515,-0.0672164,-0.183884
2.25065,-0.067191,0.0393028
2.3089,-0.18212,-0.134883
2.23993,-0.0668708,-0.117442
2.31141,-0.182318,-0.0809668
2.22982,-0.0743602,-0.0649301
2.31998,-0.191145,-0.0271004
2.23273,-0.0744575,-0.284356
2.23872,-0.0746571,-0.0130187
2.30613,-0.190003,-0.216002
2.34788,-0.193444,0.0274264
2.25524,-0.0752081,-0.184209
2.2544,-0.0751802,0.0393726
2.32019,-0.191162,-0.13558
2.24367,-0.0748223,-0.117651
2.32271,-0.19137,-0.0813856
2.23755,-0.0820472,-0.0651628
2.32332,-0.199179,-0.027147
2.24041,-0.0821519,-0.285366
2.27044,-0.0832531,-0.0132047
2.31342,-0.19833,-0.216746
2.3552,-0.201912,0.0275195
2.25099,-0.0825402,-0.183884
2.25414,-0.0826556,0.0393726
2.32353,-0.199196,-0.135813
2.2474,-0.0824085,-0.117861
2.32206,-0.199071,-0.0813856
2.24124,-0.0900176,-0.0652792
2.33058,-0.207999,-0.0272401
2.24011,-0.0899719,-0.285366
2.27013,-0.0911779,-0.0132047
2.31271,-0.206404,-0.216746
2.3744,-0.21191,0.0277523
2.25866,-0.0907171,-0.184535
2.24984,-0.090363,0.0393028
2.32679,-0.207661,-0.136045
2.25109,-0.0904132,-0.11807
2.32533,-0.207531,-0.0815252
2.24092,-0.0978405,-0.0652792
2.3378,-0.216871,-0.0273333
2.24374,-0.0979639,-0.285871
2.2698,-0.0991016,-0.0132047
2.31198,-0.214476,-0.216746
2.26629,-0.0989486,-0.185186
2.26949,-0.0990882,0.0396519
2.32605,-0.215782,-0.136045
2.25875,-0.098619,-0.118489
2.32858,-0.216016,-0.0816648
2.24855,-0.106039,-0.0655119
2.208,0.00385369,0
2.34101,-0.225414,-0.0273798
2.25528,-0.106356,-0.287386
2.25346,-0.10627,-0.0131117
2.31518,-0.222927,-0.217117
2.37286,-0.228481,0.0277523
2.2739,-0.107234,-0.185836
2.27712,-0.107386,0.0397915
2.33721,-0.225048,-0.136743
2.26637,-0.106879,-0.118907
2.33577,-0.224909,-0.081944
2.25216,-0.114089,-0.0656282
2.2,-0.00383973,0
2.34419,-0.233981,-0.0274264
2.26282,-0.114629,-0.288397
2.28104,-0.115552,-0.0132744
2.32231,-0.231798,-0.217861
2.2034,-0.00384567,0.051272
2.38001,-0.237557,0.0278455
2.26953,-0.114969,-0.185511
2.27274,-0.115132,0.0397217
2.34039,-0.233602,-0.136976
2.2096,-0.00385649,-0.102927
2.26199,-0.114588,-0.118698
2.34292,-0.233855,-0.0822232
2.2074,-0.00385265,-0.051365
2.25973,-0.122383,-0.065861
2.19597,-0.0114982,0
2.34734,-0.242574,-0.027473
2.19753,-0.0115064,-0.34189
2.26637,-0.122742,-0.288902
2.27663,-0.123298,-0.0132512
2.19925,-0.0115153,-0.236899
2.32941,-0.240722,-0.218604
2.20737,-0.0115579,0.051365
2.37917,-0.245863,0.0278455
2.20259,-0.0115328,-0.154022
2.27708,-0.123322,-0.186162
2.28031,-0.123497,0.0398613
2.34353,-0.24218,-0.137208
2.20957,-0.0115694,-0.102927
2.27354,-0.123131,-0.119326
2.35005,-0.242854,-0.0825024
2.20737,-0.0115579,-0.051365
2.26727,-0.13073,-0.0660937
2.21192,-0.0193031,0
2.35841,-0.252041,-0.0276127
2.20934,-0.0192806,-0.343735
2.26989,-0.130881,-0.289407
2.29215,-0.132165,-0.0133442
2.20317,-0.0192268,-0.237327
2.3444,-0.250544,-0.220092
2.21532,-0.0193328,0.0515511
2.38625,-0.255017,0.0279386
2.21052,-0.0192909,-0.15458
2.28459,-0.131729,-0.186813
2.27587,-0.131226,0.0397915
2.35458,-0.251632,-0.137906
2.2255,-0.0194217,-0.103671
2.28108,-0.131526,-0.119745
2.34521,-0.25063,-0.0823628
2.21532,-0.0193328,-0.0515511
2.2668,-0.138644,-0.0660937
2.21583,-0.0270729,0
2.35752,-0.260272,-0.0276127
2.21716,-0.0270891,-0.344964
2.27338,-0.139046,-0.289912
2.20309,-0.0269172,-0.237327
2.34351,-0.258726,-0.220092
2.21923,-0.0271144,0.0516442
2.3933,-0.264222,0.0280317
2.21443,-0.0270557,-0.154859
2.2881,-0.139946,-0.187138
2.29137,-0.140146,0.0400707
2.34972,-0.259411,-0.137673
2.22542,-0.02719,-0.103671
2.27662,-0.139244,-0.119535
2.36021,-0.26057,-0.0829212
2.21523,-0.0270655,-0.0515511
2.2663,-0.146555,-0.0660937
2.19973,-0.0345561,0
2.36057,-0.268953,-0.0276592
2.22496,-0.0349524,-0.346194
2.28475,-0.147748,-0.291427
2.28319,-0.147647,-0.0132977
2.20696,-0.0346697,-0.237755
2.34655,-0.267356,-0.220463
2.21513,-0.034798,0.0515511
2.39633,-0.273028,0.0280783
2.21432,-0.0347853,-0.154859
2.29157,-0.148189,-0.187464
2.30284,-0.148918,0.0402802
2.36467,-0.26942,-0.138603
2.22132,-0.0348952,-0.103485
2.28409,-0.147705,-0.119954
2.36326,-0.26926,-0.0830608
2.22312,-0.0349236,-0.0517372
2.27376,-0.155009,-0.0663264
2.22759,-0.0427719,0
2.36359,-0.277658,-0.0277058
2.22087,-0.0426429,-0.345579
2.28818,-0.155993,-0.291932
2.30661,-0.157249,-0.0134371
2.2108,-0.0424496,-0.238184
2.34956,-0.27601,-0.220835
2.22299,-0.0426836,0.0517372
2.39537,-0.281391,0.0280783
2.22216,-0.0426677,-0.155417
2.299,-0.15673,-0.188115
2.3023,-0.156955,0.0402802
2.37561,-0.27907,-0.139301
2.23317,-0.042879,-0.104044
2.28754,-0.155949,-0.120163
2.37025,-0.27844,-0.08334
2.23099,-0.0428371,-0.0519233
2.2852,-0.163404,-0.0666755
2.23943,-0.0504288,0
2.36662,-0.285974,-0.0277523
2.22467,-0.0500963,-0.346194
2.28765,-0.16358,-0.291932
2.30208,-0.164612,-0.0134139
2.21462,-0.0498701,-0.238612
2.36049,-0.285233,-0.22195
2.23483,-0.0503251,0.0520164
2.40633,-0.290772,0.028218
2.23398,-0.0503059,-0.156255
2.29847,-0.164353,-0.188115
2.30975,-0.16516,0.0404198
2.38657,-0.288384,-0.139999
2.241,-0.0504641,-0.104416
2.29498,-0.164104,-0.120582
2.38122,-0.287737,-0.0837588
2.23883,-0.0504151,-0.0521094
2.2886,-0.171679,-0.0667919
2.24324,-0.0583496,0
2.37752,-0.295714,-0.027892
2.23238,-0.0580671,-0.347424
2.29498,-0.172158,-0.292942
2.30947,-0.173245,-0.0134604
2.22239,-0.0578071,-0.239469
2.36739,-0.294454,-0.222694
2.23864,-0.0582298,0.0521094
2.4053,-0.29917,0.028218
2.2298,-0.0579999,-0.155975
2.30185,-0.172673,-0.18844
2.30916,-0.173221,0.0404198
2.38951,-0.297205,-0.140231
2.24081,-0.0582864,-0.104416
2.29838,-0.172413,-0.120791
2.3802,-0.296047,-0.0837588
2.24663,-0.0584377,-0.0522955
2.28798,-0.179667,-0.0667919
2.38837,-0.305534,-0.0280317
2.24007,-0.0660923,-0.348654
2.29832,-0.180478,-0.293447
2.30487,-0.180992,-0.0134371
2.2182,-0.0654471,-0.239041
2.3861,-0.305243,-0.224553
2.23842,-0.0660437,0.0521094
2.41218,-0.308579,0.0283111
2.24554,-0.0662537,-0.157092
2.30521,-0.181019,-0.188766
2.31253,-0.181594,0.0404896
2.40034,-0.307065,-0.140929
2.24858,-0.0663436,-0.104788
2.30971,-0.181373,-0.121419
2.39898,-0.30689,-0.0844568
2.24242,-0.0661617,-0.0522025
2.28734,-0.187652,-0.0667919
2.39919,-0.315433,-0.0281714
2.24377,-0.0740415,-0.349269
2.30163,-0.188824,-0.293952
2.32415,-0.190672,-0.0135534
2.22591,-0.073452,-0.239897
2.36922,-0.311493,-0.223066
2.24217,-0.0739888,0.0522025
2.41505,-0.317519,0.0283577
2.24928,-0.0742233,-0.157371
2.31251,-0.189717,-0.189416
2.31985,-0.190319,0.0406292
2.39529,-0.314921,-0.140696
2.24834,-0.0741922,-0.104788
2.31304,-0.18976,-0.121629
2.38996,-0.31422,-0.0841776
2.24617,-0.0741206,-0.0522955
2.29863,-0.196658,-0.067141
2.39015,-0.322736,-0.0280783
2.2356,-0.081585,-0.348039
2.31282,-0.197872,-0.295468
2.23358,-0.0815115,-0.240754
2.37601,-0.320827,-0.223809
2.24989,-0.0821066,0.0523886
2.42186,-0.327017,0.0284508
2.24901,-0.0820743,-0.157371
2.31184,-0.197788,-0.189416
2.32714,-0.199097,0.0407688
2.40209,-0.324349,-0.141162
2.25605,-0.0823313,-0.10516
2.31237,-0.197833,-0.121629
2.4047,-0.324701,-0.084736
2.24989,-0.0821066,-0.0523886
2.30191,-0.205035,-0.0672573
2.24715,-0.089862,-0.349884
2.30817,-0.205592,-0.294963
2.32675,-0.207248,-0.0135766
2.24521,-0.0897844,-0.242039
2.25359,-0.0901195,0.0524816
2.43259,-0.337116,0.0285905
2.24871,-0.0899243,-0.157371
2.3151,-0.20621,-0.189742
2.33042,-0.207574,0.0408386
2.25974,-0.0903656,-0.105346
2.31962,-0.206613,-0.122047
2.26158,-0.0904391,-0.0526678
2.30914,-0.213806,-0.06749
2.26586,-0.0985333,0
2.24287,-0.0975338,-0.349269
2.31138,-0.214014,-0.295468
2.32999,-0.215737,-0.0135999
2.24091,-0.0974482,-0.241611
2.26525,-0.0985066,0.0527608
2.44327,-0.347294,0.0287302
2.26034,-0.0982933,-0.158208
2.32231,-0.215025,-0.190393
2.33366,-0.216076,0.0409084
2.42349,-0.344482,-0.142557
2.2634,-0.0984266,-0.105533
2.32286,-0.215077,-0.122257
2.4182,-0.343731,-0.0852944
2.26525,-0.0985066,-0.0527608
2.21166,0.0042461,-0.0386047
2.31236,-0.222248,-0.0676064
2.26151,-0.106254,0
2.25042,-0.105733,-0.350499
2.32642,-0.223599,-0.297488
2.32923,-0.223869,-0.0135999
2.2485,-0.105643,-0.242468
2.26888,-0.106601,0.0528539
2.45392,-0.357551,0.0288699
2.27593,-0.106932,-0.159324
2.32154,-0.22313,-0.190393
2.34085,-0.224986,0.0410481
2.21146,0.00424571,-0.14173
2.27103,-0.106702,-0.105905
2.33005,-0.223948,-0.122675
2.26489,-0.106413,-0.0527608
2.21566,-0.00386706,-0.0386745
2.29959,-0.22953,-0.0672573
2.2651,-0.114745,0
2.40512,-0.359448,-0.0283111
2.25791,-0.114381,-0.351728
2.32559,-0.232124,-0.297488
2.33635,-0.233199,-0.0136464
2.26001,-0.114487,-0.243753
2.41851,-0.361448,-0.228271
2.26848,-0.114916,0.0528539
2.45259,-0.366542,0.0288699
2.26356,-0.114667,-0.158487
2.33261,-0.232826,-0.191369
2.35195,-0.234756,0.0412575
2.20747,-0.00385276,-0.141474
2.42096,-0.361816,-0.142557
2.27461,-0.115227,-0.106091
2.33716,-0.23328,-0.123094
2.20217,-0.00384352,-0.0897188
2.4315,-0.36339,-0.0858528
2.28046,-0.115523,-0.053133
2.22363,-0.0112549,-0.0388142
2.31075,-0.238385,-0.0676064
2.42369,-0.370443,-0.0285439
2.25752,-0.121868,-0.351728
2.3327,-0.240649,-0.298498
2.33954,-0.241356,-0.0136696
2.25565,-0.121767,-0.243325
2.4173,-0.369467,-0.228271
2.28006,-0.123085,0.053133
2.46323,-0.376487,0.0290096
2.27512,-0.122818,-0.159324
2.33976,-0.241378,-0.19202
2.35116,-0.242554,0.0412575
2.21543,-0.0112134,-0.141986
2.27422,-0.122769,-0.106091
2.3324,-0.240619,-0.122885
2.20614,-0.0111664,-0.0898817
2.27607,-0.122869,-0.05304
2.22758,-0.019051,-0.038884
2.32979,-0.248571,-0.0681882
2.30819,-0.132685,0
2.43028,-0.380138,-0.0286371
2.26102,-0.129974,-0.352343
2.33579,-0.249212,-0.299003
2.34664,-0.250369,-0.0137161
2.26315,-0.130096,-0.244181
2.41599,-0.377902,-0.228271
2.27962,-0.131043,0.053133
2.4698,-0.386319,0.0291027
2.27867,-0.130988,-0.159603
2.3389,-0.249544,-0.19202
2.35825,-0.251608,0.0413971
2.22336,-0.0190149,-0.142497
2.28574,-0.131395,-0.106649
2.34347,-0.250031,-0.123513
2.20609,-0.0188672,-0.0898817
2.44477,-0.382403,-0.0864112
2.2876,-0.131502,-0.0533191
2.2275,-0.0268266,-0.038884
2.32493,-0.256264,-0.0680718
2.44079,-0.390514,-0.0287768
2.33491,-0.257363,-0.299003
2.2078,-0.0265893,0.0128327
2.35371,-0.259436,-0.0137626
2.27459,-0.138722,-0.245466
2.43039,-0.38885,-0.229758
2.28713,-0.139486,0.0533191
2.47239,-0.395569,0.0291493
2.27819,-0.138941,-0.159603
2.34594,-0.25858,-0.192671
2.36134,-0.260277,0.0414669
2.22328,-0.0267757,-0.142497
2.4526,-0.392404,-0.14465
2.28926,-0.139616,-0.106835
2.34655,-0.258647,-0.123722
2.214,-0.026664,-0.0902073
2.45526,-0.392829,-0.08683
2.29112,-0.13973,-0.0534122
2.23939,-0.0343973,-0.0390934
2.33598,-0.265326,-0.0684209
2.29526,-0.147623,0
2.44738,-0.399896,-0.0288699
2.34192,-0.266001,-0.300013
2.2197,-0.0340948,0.0129024
2.35681,-0.267691,-0.0137859
2.27015,-0.146008,-0.245038
2.44088,-0.398834,-0.230873
2.29065,-0.147326,0.0534122
2.4908,-0.406991,0.0293821
2.29365,-0.14752,-0.160719
2.35695,-0.267708,-0.193647
2.37238,-0.26946,0.0416763
2.22318,-0.0341482,-0.142497
2.28878,-0.147207,-0.106835
2.35759,-0.267779,-0.12435
2.2179,-0.0340671,-0.0903702
2.29065,-0.147326,-0.0534122
2.23926,-0.042214,-0.0390934
2.34299,-0.274409,-0.0686537
2.4578,-0.410413,-0.0290096
2.3528,-0.275558,-0.301529
2.22357,-0.0419182,0.0129257
2.36778,-0.277312,-0.0138556
2.27756,-0.15447,-0.245895
2.4434,-0.408008,-0.231245
2.29012,-0.155321,0.0534122
2.48936,-0.415683,0.0293821
2.29312,-0.155525,-0.160719
2.36788,-0.277325,-0.194624
2.37937,-0.27867,0.041816
2.23502,-0.042134,-0.143265
2.46956,-0.412377,-0.145813
2.29623,-0.155736,-0.107208
2.35664,-0.276007,-0.12435
2.22576,-0.0419595,-0.0906958
2.30209,-0.156133,-0.0536913
2.24309,-0.0505111,-0.0391632
2.35387,-0.284433,-0.0690027
2.29414,-0.164044,0
2.46416,-0.420765,-0.0291027
2.35178,-0.28418,-0.301529
2.2314,-0.0502478,0.0129722
2.37071,-0.286468,-0.0138789
2.28888,-0.163668,-0.24718
2.44189,-0.416961,-0.231245
2.29751,-0.164285,0.0535983
2.29651,-0.164213,-0.160998
2.37081,-0.28648,-0.194949
2.38628,-0.288348,0.0419556
2.24682,-0.0505951,-0.144032
2.30361,-0.164721,-0.10758
2.36354,-0.285601,-0.124769
2.22958,-0.050207,-0.0908587
2.3015,-0.16457,-0.0536913
2.25091,-0.0581558,-0.0393028
2.36085,-0.293223,-0.0692355
2.29757,-0.171949,0
2.4667,-0.42962,-0.0291493
2.36264,-0.293445,-0.303044
2.37769,-0.295314,-0.0139253
2.28833,-0.171257,-0.24718
2.44834,-0.426423,-0.231988
2.30493,-0.172499,0.0537844
2.30392,-0.172424,-0.161556
2.36985,-0.29434,-0.194949
2.39324,-0.297246,0.0420952
2.24664,-0.0580456,-0.144032
2.46269,-0.428923,-0.14558
2.30704,-0.172657,-0.107766
2.37051,-0.294422,-0.125188
2.22941,-0.0576003,-0.0908587
2.48111,-0.432131,-0.0879467
2.3129,-0.173096,-0.0539705
2.25069,-0.0660126,-0.0393028
2.35585,-0.300955,-0.0691191
2.32089,-0.181843,0
2.36553,-0.302193,-0.303549
2.38061,-0.304119,-0.0139486
2.29168,-0.179554,-0.247608
2.46252,-0.437755,-0.233476
2.3083,-0.180856,0.0538774
2.3033,-0.180465,-0.161556
2.40835,-0.307663,-0.198204
2.39616,-0.306105,0.042165
2.24642,-0.0658875,-0.144032
2.46904,-0.438914,-0.146045
2.31439,-0.181334,-0.108138
2.37739,-0.303707,-0.125606
2.23718,-0.0656164,-0.0911843
2.32026,-0.181793,-0.0541566
2.25444,-0.0739997,-0.0393726
2.37064,-0.311259,-0.0695846
2.37233,-0.311481,-0.304559
2.37954,-0.312427,-0.0139486
2.295,-0.187877,-0.248037
2.47273,-0.44848,-0.234591
2.3236,-0.190218,0.0542496
2.31459,-0.18948,-0.162393
2.39145,-0.313991,-0.196902
2.39904,-0.314988,0.0422348
2.25017,-0.0738595,-0.144288
2.47535,-0.448955,-0.14651
2.31773,-0.189737,-0.108324
2.38028,-0.312524,-0.125816
2.24493,-0.0736874,-0.09151
2.30765,-0.188913,-0.0538774
2.26616,-0.0823042,-0.0395821
2.36558,-0.318998,-0.0694682
2.32355,-0.198381,0
2.3791,-0.320821,-0.305569
2.38636,-0.3218,-0.0139951
2.30622,-0.196902,-0.249322
2.47507,-0.457833,-0.234963
2.31893,-0.197987,0.0541566
2.31391,-0.197559,-0.162393
2.39824,-0.323403,-0.197553
2.40189,-0.323895,0.0423046
2.25389,-0.0818585,-0.144544
2.32103,-0.198166,-0.108511
2.37917,-0.320831,-0.125816
2.24865,-0.0816683,-0.0916728
2.31893,-0.197987,-0.0541566
2.26586,-0.0902141,-0.0395821
2.31886,-0.206136,0
2.38582,-0.330212,-0.306579
2.25817,-0.0899081,0.0131349
2.31344,-0.205655,-0.250179
2.3262,-0.206789,0.0543427
2.31718,-0.205988,-0.162672
2.41659,-0.33447,0.0425839
2.26555,-0.0902019,-0.145312
2.32828,-0.206975,-0.108883
2.25235,-0.0896761,-0.0918356
2.33018,-0.207143,-0.0544357
2.28151,-0.0988151,-0.0398613
2.39892,-0.340563,-0.0705155
2.32609,-0.214966,0
2.38858,-0.339095,-0.307084
2.25385,-0.0976169,0.0131117
2.40386,-0.341263,-0.0141113
2.31667,-0.214095,-0.250607
2.33342,-0.215644,0.0545288
2.32837,-0.215176,-0.163509
2.41566,-0.342939,-0.19918
2.41541,-0.342904,0.0425839
2.26522,-0.0981096,-0.145312
2.33153,-0.215468,-0.109069
2.4006,-0.340801,-0.127072
2.25202,-0.0975377,-0.0918356
2.3374,-0.216012,-0.0546219
2.28115,-0.106778,-0.0398613
2.33329,-0.223848,0
2.39524,-0.348574,-0.308094
2.26548,-0.106045,0.0131814
2.31987,-0.222561,-0.251036
2.33664,-0.224169,0.0546219
2.3276,-0.223303,-0.163509
2.42211,-0.352485,0.0427235
2.26886,-0.106203,-0.145567
2.33076,-0.223606,-0.109069
2.26364,-0.105959,-0.0923241
2.33664,-0.224169,-0.0546219
2.28476,-0.114942,-0.0399311
2.39253,-0.356712,-0.0703991
2.33647,-0.232387,0
2.41363,-0.359858,-0.31062
2.27708,-0.114555,0.0132512
2.42911,-0.362166,-0.0142741
2.32303,-0.231051,-0.251464
2.33982,-0.23272,0.0547149
2.33475,-0.232216,-0.164067
2.4211,-0.360971,-0.199831
2.42482,-0.361527,0.0427933
2.27645,-0.114523,-0.146079
2.34189,-0.232926,-0.109627
2.42582,-0.361676,-0.128537
2.27124,-0.114261,-0.0926498
2.33982,-0.23272,-0.0547149
2.28838,-0.122332,-0.0400009
2.33971,-0.240135,0
2.42033,-0.368634,-0.31163
2.27671,-0.121708,0.0132512
2.42796,-0.369795,-0.0142741
2.33021,-0.23916,-0.252321
2.34703,-0.240886,0.054901
2.33798,-0.239957,-0.164346
2.42389,-0.369176,-0.200157
2.43949,-0.371552,0.0430725
2.28405,-0.1221,-0.146591
2.34512,-0.240691,-0.109813
2.27087,-0.121396,-0.0926498
2.34703,-0.240886,-0.054901
2.28792,-0.130719,-0.0400009
2.34677,-0.249554,0
2.42289,-0.378114,-0.312135
2.43449,-0.379925,-0.0143206
2.33723,-0.24854,-0.253177
2.35011,-0.24991,0.0549941
2.34105,-0.248947,-0.164625
2.43828,-0.380516,-0.201458
2.44207,-0.381107,0.0431423
2.28757,-0.130699,-0.146847
2.34423,-0.249284,-0.109813
2.4312,-0.379411,-0.128956
2.27839,-0.130174,-0.0929754
2.35011,-0.24991,-0.0549941
2.29546,-0.138788,-0.0401405
2.35388,-0.258208,0
2.42554,-0.386772,-0.31264
2.2798,-0.137841,0.0132744
2.44902,-0.390516,-0.0144135
2.3443,-0.257156,-0.254034
2.35324,-0.258138,0.0550871
2.34815,-0.257579,-0.165183
2.437,-0.3886,-0.201458
2.44474,-0.389833,0.0432122
2.28314,-0.138043,-0.146591
2.3553,-0.258364,-0.110372
2.4457,-0.389987,-0.129793
2.27795,-0.137729,-0.0929754
2.35722,-0.258574,-0.0551802
2.29895,-0.147055,-0.0402103
2.42691,-0.395683,-0.0715627
2.35694,-0.266873,0
2.42809,-0.395875,-0.313145
2.28729,-0.146309,0.0133209
2.44369,-0.398418,-0.0143903
2.34734,-0.265785,-0.254463
2.36028,-0.26725,0.0552732
2.35516,-0.266672,-0.165741
2.45137,-0.39967,-0.20276
2.45126,-0.399652,0.0433518
2.30256,-0.147286,-0.14787
2.36233,-0.267483,-0.110744
2.28942,-0.146445,-0.0934639
2.36425,-0.2677,-0.0553663
2.29842,-0.155079,-0.0402103
2.43735,-0.406124,-0.0719118
2.36394,-0.276026,0
2.43844,-0.406304,-0.31466
2.29474,-0.154831,0.0133674
2.44623,-0.407603,-0.0144135
2.34639,-0.273977,-0.254463
2.3633,-0.275951,0.0553663
2.35818,-0.275354,-0.16602
2.45389,-0.40888,-0.203086
2.46168,-0.410178,0.0435612
2.30203,-0.155322,-0.14787
2.36535,-0.276191,-0.11093
2.29288,-0.154705,-0.0936268
2.3633,-0.275951,-0.0553663
2.30582,-0.16407,-0.04035
2.36688,-0.285167,0
2.44867,-0.417239,-0.316176
2.29815,-0.163524,0.0133907
2.46049,-0.419254,-0.0145065
2.36117,-0.284478,-0.256176
2.36624,-0.28509,0.0554593
2.36508,-0.28495,-0.166578
2.46024,-0.41921,-0.203737
2.4641,-0.419869,0.043631
2.30145,-0.163759,-0.14787
2.37225,-0.285814,-0.111302
2.45716,-0.418687,-0.130631
2.30027,-0.163675,-0.0939524
2.37021,-0.285568,-0.0555524
2.30925,-0.172012,-0.0404198
2.45021,-0.425868,-0.0723772
2.36989,-0.293506,0
2.45509,-0.426715,-0.317186
2.30557,-0.171738,0.0134371
2.45909,-0.427411,-0.0145065
2.36416,-0.292795,-0.256605
2.37322,-0.293918,0.0556454
2.37204,-0.293772,-0.167137
2.46276,-0.428049,-0.204062
2.31283,-0.172279,-0.148637
2.37922,-0.294661,-0.111675
2.4597,-0.427517,-0.13084
2.3037,-0.171599,-0.0941152
2.37719,-0.29441,-0.0557385
2.31658,-0.181098,-0.0405594
2.38467,-0.304215,0
2.46132,-0.437098,-0.318196
2.3129,-0.180811,0.0134836
2.37096,-0.302465,-0.257461
2.3761,-0.30312,0.0557385
2.38678,-0.304484,-0.168253
2.4651,-0.43777,-0.204388
2.31617,-0.181066,-0.148893
2.40587,-0.306919,-0.112978
2.30704,-0.180353,-0.0942781
2.40386,-0.306663,-0.0563898
2.31597,-0.188779,-0.0405594
2.45898,-0.4451,-0.0727263
2.39555,-0.313679,0
2.31229,-0.18848,0.0134836
2.36994,-0.310326,-0.257461
2.38301,-0.312036,0.0559246
2.37389,-0.310843,-0.167416
2.47933,-0.448783,-0.205689
2.31953,-0.18907,-0.149149
2.4088,-0.315414,-0.113164
2.46451,-0.446101,-0.131259
2.31041,-0.188327,-0.0944409
2.39094,-0.313075,-0.0561107
2.31924,-0.197606,-0.0406292
2.39835,-0.322991,0
2.31956,-0.197633,0.0135301
2.36879,-0.31901,-0.257461
2.38977,-0.321836,0.0561107
2.38855,-0.321671,-0.168532
2.3228,-0.197909,-0.149405
2.40763,-0.324241,-0.113164
2.32564,-0.198151,-0.0950922
2.38185,-0.320768,-0.0559246
2.32651,-0.206407,-0.0407688
2.32682,-0.206435,0.0135766
2.37948,-0.32891,-0.258747
2.39656,-0.331271,0.0562968
2.33005,-0.206722,-0.149916
2.33289,-0.206974,-0.0954179
2.32577,-0.214527,-0.0407688
2.33007,-0.214924,0.0135999
2.38619,-0.338331,-0.259603
2.40727,-0.341319,0.056576
2.3902,-0.338899,-0.168811
2.33329,-0.21522,-0.150172
2.33216,-0.215116,-0.0954179
2.33703,-0.222972,-0.0409782
2.41475,-0.350122,0
2.33336,-0.222622,0.0136231
2.39299,-0.346967,-0.26046
2.40618,-0.34888,0.056576
2.33657,-0.222929,-0.150428
2.43191,-0.352609,-0.114467
2.33147,-0.222442,-0.0954179
2.43784,-0.35347,-0.0573204
2.34416,-0.232325,-0.0411179
2.42136,-0.360147,0
2.33651,-0.231568,0.0136464
2.4035,-0.357491,-0.261745
2.41675,-0.359461,0.0568551
2.41152,-0.358683,-0.170485
2.34369,-0.232279,-0.15094
2.40688,-0.357994,-0.11335
2.34257,-0.232168,-0.0959064
2.34731,-0.240915,-0.0411877
2.43591,-0.371006,0
2.34365,-0.240539,0.0136929
2.39831,-0.365279,-0.261317
2.42339,-0.369099,0.0570412
2.34683,-0.240866,-0.151196
2.34572,-0.240752,-0.0960692
2.3465,-0.248697,-0.0411877
2.43862,-0.379697,0
2.35079,-0.249153,0.0137394
2.4128,-0.375678,-0.26303
2.42215,-0.377134,0.0570412
2.42479,-0.377545,-0.171601
2.34999,-0.249067,-0.151451
2.35286,-0.249372,-0.0963948
2.36152,-0.258628,-0.0414669
2.44123,-0.388837,0
2.35786,-0.258228,0.0137859
2.41933,-0.385349,-0.263887
2.43267,-0.387473,0.0573204
2.45104,-0.3904,-0.173554
2.36498,-0.259007,-0.152475
2.45042,-0.390301,-0.115583
2.35595,-0.258018,-0.0965577
2.37248,-0.268632,-0.0416763
2.45953,-0.401,0
2.36087,-0.267318,0.0138091
2.4336,-0.396773,-0.265601
2.44307,-0.398317,0.0575995
2.45747,-0.400665,-0.174112
2.36005,-0.267224,-0.152219
2.35896,-0.267101,-0.0967205
2.44702,-0.398961,-0.0576926
2.37162,-0.276084,-0.0416763
2.4622,-0.409381,0
2.364,-0.275196,0.0138324
2.43627,-0.405069,-0.266029
2.45364,-0.407958,0.0578787
2.36713,-0.275561,-0.152731
2.46347,-0.409593,-0.116328
2.36605,-0.275435,-0.0970462
2.44181,-0.40599,-0.0575995
2.37461,-0.284837,-0.0417462
2.4647,-0.418643,0
2.36699,-0.283923,0.0138556
2.43876,-0.414237,-0.266457
2.44826,-0.415851,0.0577856
2.37408,-0.284773,-0.153242
2.46203,-0.418189,-0.116328
2.36904,-0.284168,-0.097209
2.38546,-0.295011,-0.0419556
2.47103,-0.429042,0
2.38181,-0.29456,0.0139486
2.4529,-0.425894,-0.268171
2.45854,-0.426874,0.0580648
2.46894,-0.428679,-0.175228
2.38886,-0.295432,-0.154266
2.46442,-0.427894,-0.116514
2.38385,-0.294811,-0.0978603
2.40822,-0.306364,-0.0423744
2.38077,-0.302872,0.0139486
2.45531,-0.435148,-0.268599
2.39574,-0.304776,-0.154777
2.46684,-0.437191,-0.1167
2.37884,-0.302626,-0.0976975
2.41116,-0.314867,-0.0424443
2.38372,-0.311284,0.0139718
2.4656,-0.445408,-0.269885
2.47775,-0.447603,-0.176065
2.39867,-0.313236,-0.155033
2.38178,-0.311031,-0.0978603
2.39815,-0.321686,-0.0422348
2.39055,-0.320666,0.0140183
2.46794,-0.454733,-0.270313
2.39734,-0.3301,0.0140648
2.4162,-0.332697,-0.156312
2.41123,-0.332013,-0.0991629
2.40409,-0.339585,0.0141113
2.45409,-0.354951,-0.043282
2.41879,-0.349846,0.0142043
2.43363,-0.351992,-0.157591
2.40496,-0.347845,-0.0990001
2.42547,-0.35946,0.0142508
2.43204,-0.369549,0.0142973
2.435,-0.369998,-0.157847
2.44628,-0.380016,-0.0432122
2.4308,-0.377612,0.0142973
2.43278,-0.377919,-0.100303
2.45679,-0.390436,-0.0434216
2.44132,-0.387978,0.0143671
2.43242,-0.386564,-0.157847
2.45118,-0.389545,-0.101117
2.46331,-0.400293,-0.0435612
2.4518,-0.398422,0.0144368
2.4577,-0.399381,-0.101443
2.46584,-0.409544,-0.043631
2.46223,-0.408944,0.0145065
2.46023,-0.408612,-0.101605
2.47228,-0.419487,-0.0437706
2.46079,-0.417536,0.0145065
2.4676,-0.418692,-0.160406
2.46273,-0.417866,-0.101768
2.46686,-0.427431,-0.0437008
2.47508,-0.428855,0.0145995
2.47399,-0.428666,-0.160917
2.47701,-0.429189,-0.10242
2.48034,-0.438689,-0.161429
2.47943,-0.438529,-0.102582
2.2966,-0.188008,-0.358492
2.3038,-0.196696,-0.359722
2.30704,-0.205086,-0.360337
2.47737,-0.467208,-0.235334
2.31025,-0.213502,-0.360952
2.48746,-0.478108,-0.23645
2.49405,-0.479375,-0.147906
2.31736,-0.22232,-0.362182
2.48186,-0.486023,-0.236078
2.32836,-0.231581,-0.364027
2.50359,-0.499357,-0.238309
2.52197,-0.503023,-0.149766
2.33942,-0.240105,-0.365871
2.50591,-0.508011,-0.23868
2.33852,-0.248678,-0.365871
2.51573,-0.519609,-0.239796
2.51457,-0.51937,-0.149534
2.34162,-0.256862,-0.366486
2.34463,-0.265479,-0.367101
2.35547,-0.275037,-0.368946
2.5336,-0.550561,-0.242026
2.54421,-0.552867,-0.151627
2.36229,-0.284614,-0.370176
2.53545,-0.560704,-0.242398
2.55776,-0.565638,-0.152557
2.36918,-0.293418,-0.371406
2.55301,-0.573473,-0.244257
2.56756,-0.576742,-0.153254
2.36809,-0.302099,-0.371406
2.56254,-0.585487,-0.245372
2.57322,-0.587928,-0.15372
2.45986,-0.445258,-0.318196
2.57222,-0.596682,-0.246488
2.57514,-0.59736,-0.153952
2.38943,-0.321789,-0.375095
2.46991,-0.456434,-0.319711
2.57002,-0.606105,-0.246488
2.48159,-0.458591,-0.206015
2.39612,-0.33121,-0.376325
2.48,-0.467257,-0.321226
2.5795,-0.617856,-0.247603
2.5074,-0.472418,-0.208293
2.39886,-0.340127,-0.37694
2.48225,-0.476659,-0.321731
2.49399,-0.478912,-0.207317
2.4056,-0.348796,-0.37817
2.48853,-0.485976,-0.322742
2.5003,-0.488273,-0.207968
2.41213,-0.358774,-0.379399
2.49063,-0.495869,-0.323247
2.50631,-0.498991,-0.208619
2.41868,-0.368382,-0.380629
2.50055,-0.506925,-0.324762
2.51627,-0.510113,-0.209595
2.42135,-0.377008,-0.381244
2.50663,-0.516816,-0.325772
2.42782,-0.386701,-0.382474
2.51257,-0.527193,-0.326782
2.55176,-0.535415,-0.212849
2.43029,-0.396233,-0.383089
2.52227,-0.538885,-0.328297
2.44073,-0.405811,-0.384934
2.52444,-0.547648,-0.328802
2.54416,-0.551927,-0.212524
2.44319,-0.41499,-0.385548
2.53414,-0.559021,-0.330318
2.55779,-0.564239,-0.213826
2.54718,-0.561898,-0.136702
2.45334,-0.425971,-0.387393
2.54368,-0.570912,-0.331833
2.57127,-0.577102,-0.215128
2.5568,-0.573855,-0.13733
2.55715,-0.583318,-0.333853
2.57312,-0.586961,-0.215453
2.56257,-0.584553,-0.137748
2.55907,-0.592689,-0.334358
2.57893,-0.59729,-0.216104
2.5684,-0.59485,-0.138167
2.57243,-0.605254,-0.336379
2.48402,-0.457695,-0.176623
2.58847,-0.609027,-0.21708
2.57802,-0.616074,-0.337389
2.47806,-0.465548,-0.271598
2.57971,-0.626005,-0.337894
2.48423,-0.475691,-0.272455
2.49644,-0.478028,-0.17774
2.48655,-0.484687,-0.272883
2.50434,-0.497236,-0.275025
2.5103,-0.50799,-0.275882
2.51867,-0.509684,-0.179693
2.5086,-0.516311,-0.275882
2.51846,-0.527511,-0.277167
2.51905,-0.527634,-0.179972
2.52439,-0.537956,-0.278024
2.54193,-0.550977,-0.280166
2.5387,-0.550279,-0.181646
2.54775,-0.561559,-0.281023
2.54846,-0.561714,-0.182483
2.53802,-0.56871,-0.280166
2.56206,-0.574096,-0.183599
2.55541,-0.581981,-0.282308
2.56782,-0.584808,-0.184157
2.56498,-0.593588,-0.283593
2.56576,-0.593768,-0.184157
2.57461,-0.604819,-0.284878
2.57543,-0.60501,-0.184994
2.58022,-0.615648,-0.285735
2.50315,-0.469357,-0.16322
2.57817,-0.624201,-0.285735
2.5194,-0.490635,-0.164499
2.51601,-0.507773,-0.164499
2.5495,-0.542843,-0.167057
2.5632,-0.555119,-0.16808
2.56514,-0.564922,-0.168336
2.57094,-0.575617,-0.168848
2.5767,-0.586359,-0.16936
2.5943,-0.598941,-0.170639
2.26845,-0.138347,-0.353573
2.27192,-0.146122,-0.354188
2.27928,-0.154587,-0.355418
2.2787,-0.162939,-0.355418
2.28209,-0.17079,-0.356033
2.28936,-0.179372,-0.357263
2.47306,-0.439628,-0.0292424
2.48331,-0.450399,-0.0293821
2.47804,-0.449442,-0.0879467
2.48959,-0.46052,-0.0294752
2.48431,-0.459544,-0.0882259
2.4919,-0.469949,-0.0295218
2.49448,-0.470435,-0.0886447
2.50203,-0.480909,-0.0296615
2.49675,-0.479894,-0.0887843
2.50426,-0.490409,-0.029708
2.51038,-0.500712,-0.0298012
2.52078,-0.502787,-0.0897615
2.52055,-0.51098,-0.0299409
2.51866,-0.520215,-0.0299409
2.52513,-0.52155,-0.0900407
2.46932,-0.438519,-0.0145763
2.47573,-0.44813,-0.0146228
2.45733,-0.454109,-0.0727263
2.48193,-0.458655,-0.0146693
2.47857,-0.458034,-0.132096
2.49211,-0.469538,-0.014739
2.49266,-0.469642,-0.132933
2.46981,-0.47427,-0.0731918
2.50224,-0.480497,-0.0148088
2.49101,-0.47834,-0.132933
2.48401,-0.485092,-0.0736572
2.50072,-0.488356,-0.0148088
2.50517,-0.489226,-0.133771
2.51068,-0.499861,-0.0148785
2.50892,-0.508622,-0.0148785
2.5083,-0.526295,-0.0745881
2.52889,-0.530616,-0.015018
2.53591,-0.550138,-0.075519
2.55693,-0.554697,-0.13712
2.47346,-0.438363,0
2.47672,-0.438942,-0.0585301
2.47986,-0.447985,0
2.47919,-0.447864,-0.0586231
2.48615,-0.458088,0
2.48346,-0.457592,-0.117631
2.48154,-0.45724,-0.0587162
2.4924,-0.468241,0
2.49755,-0.469209,-0.118375
2.49982,-0.478676,-0.118561
2.50578,-0.479817,-0.0593675
2.50093,-0.487491,0
2.50607,-0.488492,-0.118934
2.5081,-0.488889,-0.0594606
2.51098,-0.498555,0
2.51306,-0.508548,0
2.52311,-0.519298,0
2.53303,-0.530562,0
2.54593,-0.533264,-0.121167
2.52843,-0.529599,-0.060112
2.54996,-0.552718,-0.121539
2.48111,-0.438826,-0.0439801
2.4835,-0.448194,-0.0440499
2.47788,-0.447181,-0.102582
2.4938,-0.458597,-0.0442593
2.48818,-0.457564,-0.103071
2.49611,-0.468037,-0.0443291
2.49835,-0.468457,-0.103559
2.51026,-0.479312,-0.0446084
2.52026,-0.490803,-0.0448178
2.51683,-0.499259,-0.104536
2.53255,-0.511111,-0.045097
2.51328,-0.507224,0.0149017
2.50733,-0.506021,-0.104211
2.51924,-0.518043,0.0149482
2.52525,-0.528473,0.0149947
2.53513,-0.539783,0.0150645
2.5448,-0.541842,-0.106002
2.5507,-0.552413,-0.106327
2.6016,-0.658789,-0.417524
2.60835,-0.631025,-0.0468423
2.54835,-0.553767,-0.0303599
2.55088,-0.554316,-0.0911575
2.55411,-0.56483,-0.0304531
2.55663,-0.565388,-0.0914367
2.56393,-0.575927,-0.0305928
2.57815,-0.57912,-0.0922743
2.5696,-0.587102,-0.0306859
2.5799,-0.589455,-0.0924139
2.57544,-0.597428,-0.030779
2.57794,-0.598007,-0.0924139
2.58491,-0.609617,-0.0309187
2.5846,-0.609544,-0.15465
2.59518,-0.61204,-0.0931119
2.59054,-0.6205,-0.0310118
2.59022,-0.620423,-0.155115
2.59692,-0.622026,-0.0932515
2.59668,-0.631562,-0.249462
2.5958,-0.631348,-0.15558
2.60242,-0.641624,-0.250205
2.60931,-0.643323,-0.15651
2.61164,-0.65406,-0.251321
2.54867,-0.552905,-0.0151575
2.54179,-0.560709,-0.0757518
2.55454,-0.563522,-0.015204
2.53972,-0.570021,-0.0757518
2.56026,-0.574633,-0.0152505
2.5533,-0.58244,-0.0762172
2.56604,-0.585345,-0.015297
2.56304,-0.59361,-0.0765663
2.57578,-0.596559,-0.0153667
2.57263,-0.6053,-0.0769154
2.57757,-0.606463,-0.0153899
2.57797,-0.606557,-0.138795
2.5705,-0.614277,-0.0769154
2.591,-0.619175,-0.0154829
2.59409,-0.619912,-0.217731
2.59138,-0.619265,-0.139632
2.57611,-0.625132,-0.0771481
2.59965,-0.630844,-0.218382
2.59696,-0.630191,-0.140051
2.58567,-0.636538,-0.0774972
2.59304,-0.63835,-0.339914
2.60142,-0.640414,-0.218708
2.59486,-0.638799,-0.140051
2.60234,-0.650284,-0.341429
2.6069,-0.651424,-0.219359
2.59609,-0.658841,-0.340924
2.54421,-0.551473,-0.0605772
2.56362,-0.565056,-0.122284
2.55008,-0.562072,-0.0607633
2.56553,-0.574875,-0.12247
2.55201,-0.571845,-0.0608564
2.5713,-0.585601,-0.122842
2.5578,-0.582525,-0.0610425
2.58092,-0.597275,-0.123401
2.56354,-0.593253,-0.0612286
2.59059,-0.608572,-0.123959
2.58102,-0.606324,-0.0616939
2.58495,-0.616775,-0.185831
2.59623,-0.619466,-0.124331
2.58278,-0.616257,-0.0617869
2.60616,-0.630977,-0.187505
2.60192,-0.629952,-0.124703
2.59238,-0.627642,-0.0620661
2.59131,-0.637446,-0.287448
2.6077,-0.641478,-0.187784
2.59679,-0.648415,-0.288305
2.6139,-0.661904,-0.290447
2.57781,-0.548871,-0.0460045
2.55634,-0.553634,-0.0456555
2.57001,-0.565994,-0.0459347
2.55656,-0.563033,-0.106653
2.57192,-0.575836,-0.0460045
2.56238,-0.5737,-0.106979
2.5816,-0.587472,-0.046214
2.57206,-0.585301,-0.107467
2.59143,-0.598279,-0.0464234
2.58189,-0.596076,-0.107956
2.6009,-0.610515,-0.0466328
2.59986,-0.61027,-0.17115
2.59136,-0.608275,-0.108444
2.60653,-0.621445,-0.0467725
2.60548,-0.621193,-0.171662
2.59311,-0.618244,-0.108607
2.61504,-0.632645,-0.17243
2.60658,-0.630598,-0.109258
2.60002,-0.632375,-0.0311515
2.61415,-0.635811,-0.0939494
2.60579,-0.642455,-0.0312447
2.61214,-0.644021,-0.0939494
2.61118,-0.653944,-0.0313378
2.60694,-0.652882,-0.15651
2.61364,-0.654561,-0.094089
2.62296,-0.666635,-0.0945078
2.60048,-0.631045,-0.0155527
2.60614,-0.641578,-0.0155992
2.59119,-0.647499,-0.0777299
2.61165,-0.65261,-0.0156457
2.60812,-0.651727,-0.140888
2.59697,-0.628753,0
2.60242,-0.640178,0
2.60736,-0.641394,-0.125076
2.59783,-0.63905,-0.0622522
2.60017,-0.649258,0
2.61319,-0.65251,-0.188342
2.62061,-0.654363,-0.12582
2.60334,-0.650052,-0.0624383
2.61378,-0.64249,-0.0469819
2.62046,-0.644131,-0.172941
2.61978,-0.643964,-0.10991
2.62339,-0.653599,-0.0471913
2.6068,-0.649466,-0.172174
2.45573,-0.435221,-0.388008
2.46205,-0.444768,-0.389238
2.47215,-0.455508,-0.391083
2.47443,-0.464864,-0.391698
2.48443,-0.475729,-0.393542
2.48672,-0.484721,-0.394157
2.49664,-0.495708,-0.396002
2.50643,-0.507207,-0.397847
2.51248,-0.517109,-0.399076
2.53387,-0.530738,-0.402766
2.532,-0.539579,-0.402766
2.53783,-0.550089,-0.403996
2.54361,-0.560646,-0.405226
2.55321,-0.572114,-0.40707
2.56276,-0.583656,-0.408915
2.56841,-0.59438,-0.410145
2.57027,-0.603798,-0.41076
2.58353,-0.616436,-0.413219
2.58915,-0.62686,-0.414449
